# 3D point list with one line of data per point:
#   POINT3D_ID, X, Y, Z, R, G, B, ERROR, TRACK[] as (IMAGE_ID, POINT2D_IDX)
# Number of points: 404, mean track length: 3.4531660934655068
2389 -4.9726688223432784 3.0179930926900651 57.254179607653363 114 118 122 0.13678981139470411 2 8731 4 4173 3 1219 1 6165
2756 -0.90936921968200146 10.786438928395896 55.314815213925769 68 69 68 0.066023131992136969 2 9502 4 5079 3 4942 1 9605
2393 -4.1810688358388068 3.1827274469734417 57.288337679585879 101 111 119 0.070839702537495303 2 6044 4 4180 3 1243 1 6198
2760 -0.79444188741931976 10.901916212586054 55.272289412003403 128 128 128 0.10362009581841118 2 7281 4 5089 1 7464
3118 -36.130921917818952 8.6578414382985365 45.28036020871 123 116 106 0.018264041210634969 5 6636 4 6602 3 7273
2394 -12.846743975364044 2.7768046075614405 59.379219194216425 57 48 39 0.14356745874282367 2 8699 4 4182 3 4173 1 8823
3627 -36.778987028243321 -4.6397734473875758 54.557087905919161 153 147 134 0.070420781875888003 5 8500 4 8448 3 8069
2396 -34.549472041469883 1.5627930107897723 61.298321300095751 130 126 112 0.04999494879486812 5 4356 4 4185 3 4107
2605 -1.0852573680344195 7.4763137035856442 55.834464710144502 137 137 135 0.095367261202107298 2 6690 4 4698 3 1931 1 6876
3279 -0.74966836521947111 3.2274916416053263 56.513373323504503 125 131 132 0.082518909002846766 2 10392 4 7322 1 11554
2398 -15.921014979669225 2.7298186395216248 59.760038075946724 127 118 101 0.14569420179866541 2 8691 5 6201 4 4189 3 4176 1 10480
3273 -1.8140914872491136 2.9367562617152565 56.812253361265434 133 134 131 0.060971870479784154 2 11384 4 7311 3 5933 1 11545
2399 -15.924774699341587 2.7314810049084994 59.777790214797655 127 118 101 0.1212660613203847 2 10368 4 4190 3 4177 1 10481
3116 -4.356416064564824 10.472993142610829 56.12421578018521 133 127 118 0.42737291202088112 2 10798 4 6600 3 7270 1 11805
2400 -9.1212673571582972 3.0622163538191134 58.475490430226031 165 158 137 0.065886338507444769 2 8724 4 4192 3 4198 1 10511
2401 -34.75989685132501 1.5887712028985939 59.811841752241428 102 91 63 0.034991241490825199 5 4377 4 4193 3 4117
2704 -17.671635238377988 10.382009454924246 59.190632307312789 117 106 84 0.092010557536019957 5 4979 4 4954 3 6320
2403 -34.648505370321203 1.6892808570325208 60.854882125960479 83 68 39 0.036738352196344158 5 4378 4 4198 3 4124
3730 -36.424401840718957 8.2064962732870388 44.904166492949486 196 194 189 0.057043610002219781 5 8922 4 8844 3 8430
2404 1.4189594334162579 3.5190665432321961 53.872525508191508 161 161 153 0.036973697011055677 2 6145 4 4201 3 1328
3223 -1.5930011285515191 0.70275034279899073 57.09219683999779 72 67 67 0.05494820873690491 2 10255 4 7198 3 5785 1 10402
2405 -13.418510524908285 3.014636500003069 59.53137713085026 84 77 69 0.13439242553345809 5 4315 4 4206 1 8837
2708 -0.20879470617895504 9.7458325924024454 55.25946022192651 57 52 49 0.085868653864793712 2 7089 4 4960 3 2290
2406 -36.547550960458118 0.82503019405698153 46.395621915704204 183 181 174 0.11223298236741124 5 1545 4 4210 3 4112
3217 -35.201850423805787 -2.8703596559606397 50.647004252401715 152 148 137 0.075149331224709029 5 7210 4 7184 3 7594
2409 -21.051562258722885 2.6029231248161318 58.962644760145011 146 139 121 0.39290907751387394 2 8685 4 4218 3 1216
2712 -22.077764689164841 10.399869947048417 58.968474096182895 99 95 83 0.11139807729070321 5 4982 4 4967 3 4837
2410 -9.2341212024492982 3.2618649762961645 58.498330708813505 51 43 35 0.046478204303648976 2 8747 4 4219 3 1260 1 8878
2411 -5.1337573238535885 3.4444472989674928 57.449298374745069 91 82 75 0.1528297181014997 2 6085 4 4220 3 1290 1 8913
3738 -35.319809522845048 11.9565177008981 57.725475511465334 89 66 35 0.064380184467373633 5 8938 4 8858 3 8437
2412 -4.0496326945500023 3.5326275584598572 56.984780153782495 87 92 95 0.19771068222890467 2 6112 4 4224 3 1316 1 6271
3231 -36.789227164443297 -2.1597335178374166 45.291619998435166 35 24 14 0.021602846352745137 5 7247 4 7217 3 7605
2413 -4.0496326945500023 3.5326275584598572 56.984780153782495 87 92 95 0.19771068222890467 2 6111 4 4225 3 1317 1 6272
2716 -9.5520070111654558 10.188312640413345 57.383167172085805 159 157 152 0.046020018994749272 2 7103 4 4971 3 2304 1 9501
2414 -37.540277838520176 0.77019562109989148 45.471295647631187 142 135 132 0.026577366623868521 5 1559 4 4226 3 4114
3225 -32.973520392952892 -1.9212515354340836 63.145995196359017 136 130 112 0.037066867612808037 2 11992 4 7201 3 6891
2415 -3.8131278032843814 3.5580993764614415 57.168778356694368 28 30 34 0.08705353007966718 2 6113 4 4227 3 4230 1 8924
2416 1.6719899133361646 3.6897710446691279 53.60578528073561 194 191 184 0.11957720399727784 2 8816 4 4232 3 4254 1 6362
2417 -36.801230988541853 0.94503745022779073 46.277832306756174 117 101 74 0.12368346822944749 5 4417 4 4234 3 5911
2784 -23.407048661193389 12.256946942395389 57.875452554939571 162 158 145 0.10782085786142959 2 10909 4 5146 3 6463
2419 -2.0428882703516358 3.7731362082321001 56.887340952417212 143 143 138 0.18705615869305486 2 6149 4 4241 3 1345 1 1937
3810 -34.200194104451796 -2.5252964938182818 62.787588140806086 62 53 37 0.36983271995326089 5 9201 4 9129 3 8644
2420 -35.062906023870376 1.99133140072007 59.111435375944495 176 173 158 0.035785892771503902 5 4406 4 4243 3 4165
3303 -32.746048314967275 3.3562363619545663 62.088620869115175 150 135 106 0.021507325054824233 2 12070 4 7367 3 7022
2421 -2.4000827717382052 3.7847202760764938 56.800949563209521 146 146 144 0.072103876820494253 2 8803 4 4249 3 4250 1 8949
2788 -1.1916949275330535 11.429762721264106 55.220523970094249 93 92 92 0.025556121736837883 2 9575 4 5154 3 5013 1 9679
2422 -2.4000827717382052 3.7847202760764938 56.800949563209521 146 146 144 0.072103876820494253 2 8804 4 4250 3 4251 1 8950
3297 -6.6424537787057902 4.0575299303239163 57.87850409890563 21 18 13 0.088946405166108397 2 10417 4 7356 3 5981
2425 -1.4269197361129697 3.8613372308585863 56.557462530161089 135 134 135 0.12180707091397974 2 8813 4 4255 3 1366 1 6346
2792 -19.497084756723559 12.487457695735712 58.119397792939893 144 141 134 1.2781186282799559 2 10921 4 5177 3 5044
2426 0.45676082950057584 3.9318929830930887 55.993912133683011 111 108 102 0.17950818211232966 2 6177 4 4256 3 4265 2 8821 1 8981
2427 -37.49779489698377 1.0841574161555632 45.4700461374158 132 122 101 0.035375815960987239 5 4437 4 4258 3 5927
3818 -33.630411484186652 -5.153871431473612 53.200134795043397 153 150 135 0.82103372016292753 5 9231 4 9155 3 8687
2428 -35.732156510341873 1.338533494993658 47.549659677125668 172 170 164 0.080511861105641971 5 4430 4 4259 3 4163
3311 -0.15788642872291983 4.9701238768096134 56.052112102668858 111 115 115 0.08475752384172322 2 11462 4 7383 3 7066 1 11619
2429 -3.4197939537742554 3.8578191375465156 56.976619486150781 120 125 130 0.049534687727844355 2 8809 4 4262 3 4258 1 8958
2796 -8.2035587849468037 12.060553908531503 56.665833548326226 34 51 38 0.05600961191205462 2 9624 4 5183 3 5042
2430 1.256008351000047 3.9090765180502518 53.533874156336296 33 29 21 0.10940838325658121 2 1914 4 4263 1 2070
3305 -0.40919889457656639 4.5904866766463792 56.193568494220443 118 117 114 0.12986232265705328 2 11437 4 7369 3 7051 1 11600
2431 -36.815067493972684 1.2272288097366078 46.180212465719528 106 90 65 0.1777090169404488 5 4439 4 4264 3 5932
2432 -12.929974937786779 3.5281548124110778 59.299438759508398 173 167 148 0.1674240647072345 2 8764 4 4265 3 4236
2577 -2.3025961396011962 6.7246914256247869 56.236697710226252 77 72 67 0.15289845818684139 2 6583 4 4611 3 1835 1 6773
2433 -0.77185635458715562 4.0065581498160876 56.398260097453189 46 42 37 0.15802498054348765 2 8823 4 4266 3 4268 1 8982
3094 -1.2974260622886056 9.3446102332181766 55.577453099520945 115 113 110 0.19319438370978667 2 10718 4 6527 1 10865
2434 -34.121439762658319 2.5237402918761469 61.978633905940598 120 106 89 0.026218804442064921 5 4418 4 4269 3 4200
3603 -8.3340046290945367 11.807235852709727 56.938289751840294 143 139 135 0.032879069042863682 2 12255 4 8259 3 7907 1 12420
2435 -5.2023110711956697 3.8635077986764799 57.538615308291028 31 22 15 0.06413297274522127 2 8807 4 4272 3 4260 1 10564 4 6192
2436 1.5643620618216165 3.9827629738206971 53.572632526490523 33 31 27 0.077375916278834833 2 6213 4 4276 3 1408 1 9000
2581 -2.5854402245654948 6.8469040965887684 56.353817931463908 49 44 36 0.087246370212178431 2 9075 4 4623 3 4540 1 9220
2437 -5.9072716622990225 3.870956181065321 57.738596227794389 85 85 80 0.16183881499195091 2 8806 4 4278 3 4259 1 8942
2439 -3.4882513181859736 4.033154007727112 57.014182931093082 37 38 37 0.068759282070275068 2 6183 4 4286 3 1398 1 8979
3092 -34.431800602294736 9.8222370958670631 59.94109021402722 129 116 88 0.09477400547084841 5 6567 4 6522 3 7225
2440 -18.044933455399985 3.5339265625918173 60.854089529917616 133 119 97 0.19479687970720369 2 10393 5 6242 4 4287 1 11542
2585 -2.4556852497403252 6.9847946115456949 56.250549419898483 132 132 123 0.05384349720326273 2 9100 4 4638 3 1861 1 9235
2441 -6.1897748895456015 3.9551239661370747 57.821773520220219 85 85 77 0.05036782026408039 2 8814 4 4288 3 1395 1 8954
3102 0.54656440267352058 9.5894165983816286 55.139970941041312 107 106 109 0.039575086698120258 2 10741 4 6542 3 6317 1 10881
2442 -2.8544579018712937 4.0737505990317846 56.850616259065653 137 138 140 0.055011274864723514 2 8824 4 4289 3 4274 1 8980
3611 2.5995492489904799 -5.8710955674978091 55.055370988680053 139 141 138 0.057291774293656172 2 12380 4 8380 3 8026 1 12553
2444 -5.2114979901730392 4.0618462263432598 57.616367278354886 86 83 78 0.050936233805957222 2 8820 4 4296 3 1401
2589 -36.572316844290185 6.5514164425984074 58.539723756081855 126 110 77 0.21564320417081251 5 4756 4 4657 3 6143
2446 -3.3165077677213395 4.1257488286422745 56.920314999164304 113 118 123 0.035701922562684854 2 8829 4 4298 3 4276 1 8984
2447 -13.800119458054736 3.812514202862725 59.434449674517204 156 148 129 0.037061898032587429 2 8793 4 4307 3 4264
3100 -9.6743094049660581 9.869925526898502 57.556960254963009 135 131 124 0.099251941704484856 2 10729 4 6539 3 6309
2448 -35.430109172385123 1.9668941052315541 49.900232248347002 172 166 152 0.029750368100191965 5 4459 4 4310 3 4220
2657 -0.11861428479955691 8.7371681025742838 55.418138236588391 116 115 116 0.048255167018413814 2 6900 4 4828 3 2137 1 7077
2449 -37.235188449322763 1.6379290120513008 45.897817952203667 129 125 117 0.010526109005530013 5 4474 4 4313 3 4214
3174 1.4795474065321952 -3.9840807922417114 55.080239152154618 172 165 157 0.028255444001948751 2 10123 4 7064 3 5584 1 10245
2450 -36.967500221856405 1.6780265944789614 46.255062712598566 110 94 71 0.097112290155750125 5 4475 4 4314 3 4218
3683 -35.207589073861151 -9.1051763301412265 52.696563171725053 175 178 174 0.067726897065635894 5 8771 4 8725 3 8291
2451 1.4662881386848536 4.3099051491939981 53.686755912328337 125 118 108 0.02923549172449369 2 6255 4 4315 1 6463
2452 -0.95996709749750431 4.4183059596366432 56.399357111173771 55 51 47 0.020092279543827578 2 8851 4 4318 3 4295 1 9019
2661 -9.8960672189938226 9.0669977764291918 57.63251650638172 127 124 115 0.067316708574156156 2 6897 4 4837 1 9381
2453 -0.95996709749750431 4.4183059596366432 56.399357111173771 55 51 47 0.020092279543827578 2 8852 4 4319 3 4296 1 9020
2455 -37.503027251562301 1.7811986721261917 45.255948461192546 123 112 97 0.039149711815785429 5 4493 4 4331 3 4226
3172 -35.846051363527373 -9.323740404815041 49.085758288743541 70 62 50 0.056130548474766069 5 7020 4 7057 3 7490
2456 -0.65351279385361993 4.5696109303341466 56.310350041570651 57 57 57 0.22996682029191984 2 8860 4 4334 1 9024
2665 1.5962269258318333 8.5151033678557191 53.000931854046108 117 111 101 0.092663525867796442 2 6929 4 4846 3 2156 1 7110
2457 -35.927977165840026 2.0481924756962746 47.095794344328716 160 149 129 0.022012153421673952 5 4488 4 4336 3 4234
3182 -36.202653279773408 -8.3919312462078341 53.650369616509046 158 152 140 0.066335333857550347 5 7060 4 7078 3 6793
2458 -35.6217059583349 2.1010394079010046 47.367074841736809 174 175 169 0.20561081100923109 5 4489 4 4337 3 5959
3691 -36.351765282836816 -4.8681921005195852 48.377607309488909 119 101 76 0.4341195864680587 5 8802 4 8746 3 8475
2460 1.4431232661743891 4.5660746996509216 53.703755336611238 152 149 142 0.077413741290324176 2 8898 4 4342 3 4331 1 9048
2669 -4.1362908760454005 9.1157899038473893 56.354950599845353 152 153 156 0.031252463748379533 2 9295 4 4854 3 4761 1 9403
2462 -0.78286175588914164 4.6969337925035193 56.259255671862455 129 129 128 0.064392058060044596 2 8882 4 4345 3 4327 1 9041
2463 2.5000494084033233 4.6289303994022957 53.377849696949795 28 28 27 0.045278667389022885 2 6306 4 4349 3 1519 1 6524
3180 -36.67958473780358 -8.1992520214180296 48.453719632451069 126 121 110 0.090533998582241204 5 7064 4 7075 3 7507
2464 2.5000494084033233 4.6289303994022957 53.377849696949795 28 28 27 0.045278667389022885 2 6307 4 4350 3 1520 1 6525
2609 -34.707623206323127 7.2007698604349324 58.853832297931582 156 151 132 0.42932584698660287 5 4794 4 4710 3 1895
2465 2.2963269137716011 4.6368940407614101 53.413368311866165 26 26 24 0.058489256407215952 2 6304 4 4352 3 1518 1 6522
2768 -35.899315073075471 9.4119132086214687 45.166329724182418 164 158 140 0.054298206868543357 5 5079 4 5101 3 6443
3126 0.33822930555884734 10.464215998742874 55.080995284932015 43 35 32 0.12725752188389339 2 10810 4 6618 3 6383 1 10951
2467 -1.5127725898690632 4.7048509350226233 56.411782524783192 133 132 128 0.061901958804146728 2 8878 4 4355 3 4325 1 9035
3794 -34.689419013999355 9.9699644581442222 48.986595652146164 147 138 116 0.47430613173568187 5 9148 4 9072 3 8592
2468 -8.6428708498509206 4.5856010712168382 58.054071065241452 122 123 122 0.056377527919155096 2 8853 4 4361 3 4321 1 9001
2613 -33.987178900340474 7.8423980052640667 61.505030683171213 30 17 9 0.14073453289494461 5 4810 4 4726 3 4610
3287 -32.77475880977326 2.1872048221320566 62.445504037757665 161 156 138 0.0081597634430725183 2 12045 4 7338 3 6992
2469 -8.6428708498509206 4.5856010712168382 58.054071065241452 122 123 122 0.056377527919155096 2 8854 4 4362 3 4322 1 9002
2772 -0.61955572411871418 11.080180109826051 55.212511996937266 117 112 108 0.10385041994261895 2 7316 4 5111 3 2528 1 7492
2473 2.5022039872232704 4.8407049864533374 53.350782476284742 27 27 25 0.066617154932445188 2 6347 4 4373 3 1556 1 6557
2776 -4.0133639163343302 11.414608347384384 55.910837997459929 141 139 134 0.069130383719036889 2 9553 4 5128 3 4986 1 9658
3134 -9.8166136826417052 11.162575367788746 57.284592599478174 41 34 28 0.080394500478867412 2 10842 4 6636 3 6409
2474 -1.7198136095825594 4.9211693943346777 56.526569955826069 109 114 118 0.11078890315549692 2 8903 4 4376 3 4353 1 9049
3643 -35.929518442065117 -0.14539692903686802 56.701087072579462 159 153 139 0.048535411173946393 5 8565 4 8493 3 8117
2476 -34.849891545975112 3.6471386725886852 59.92581773339117 134 116 83 0.034653658622514828 5 4507 4 4380 3 5991
2621 -0.26097110909468335 7.9644366183786239 55.538648362537977 115 114 116 0.14789716770391803 2 9207 4 4744 3 4668 1 9316
3295 -15.74276423970249 3.296488213332248 59.751700052134424 156 151 136 0.019706115413049601 2 11390 4 7350 3 7009
2478 -5.7583198604587071 4.9128775604108794 57.570547312139425 124 125 124 0.032405542472433636 2 8896 4 4387 3 4352 1 9038
3289 -7.662607388297376 3.4324491813326459 58.20320803643645 113 119 119 0.12556645236882005 2 11392 4 7341 3 7011
2479 -5.7582664732417745 4.9129649810452971 57.572262399532342 124 125 124 0.036816902967747797 2 8897 4 4388 1 9039
3132 -33.703995895849694 11.752780617588241 60.279443034661462 53 37 18 0.042195679212887277 5 6659 4 6626 3 6399
2480 -10.593254582871564 4.7788748034064774 58.473295945492488 115 112 105 0.16162510427713273 2 8868 4 4391 3 4336
2561 0.22500393479250111 6.2507229593912781 55.698995411218533 45 41 37 0.10296622530530262 2 6516 4 4564 3 1762 1 9179
2481 0.42067741745101728 5.0880030042170086 55.873720838402647 27 23 21 0.040406076726534068 2 6345 4 4393 3 1566 1 6548
3078 -8.9433077798589498 8.8349342044293717 57.382733159721624 77 72 69 0.13352108551493339 2 9259 4 6482 3 6247 1 10812
2482 0.42067741745101728 5.0880030042170086 55.873720838402647 27 23 21 0.040406076726534068 2 6346 4 4394 3 1567 1 6549
3587 -16.479500399854427 10.424029140936424 58.18037611828619 98 84 63 0.062317059408546698 2 12225 4 8216 3 7876 1 12727
2483 2.4067109773098374 4.9603456477232877 53.360383467519796 156 152 147 0.073279937919353597 2 6366 4 4395 3 1573 1 6580
2484 -36.097468264346958 3.6685455727229712 59.068430563007531 72 55 25 0.24153602531661464 5 1757 4 4397 3 4290
2565 -3.3615700676405504 6.2780498466747838 56.749605246993106 90 83 75 0.07761447097713646 2 9022 4 4577 3 4487 1 9169
2485 -12.229647116948161 4.7930815908133537 58.971772120756185 102 92 85 0.062998769260071752 2 8862 4 4398 3 4341
2487 -36.125943571737388 2.474962920035868 45.508957744458684 169 165 157 0.067227975545295027 5 4537 4 4400 3 5990
3076 -35.576435868381068 8.5050749246378814 58.676570530724689 128 115 80 0.13707965531951549 5 6519 4 6472 3 6220 4 4810
2488 -6.7600772841441303 4.9651499657245708 57.767751905544834 92 92 87 0.057619407388325584 2 8899 4 4401 1 9042
2569 -37.498162938049248 4.0095169698774527 45.504853768660048 56 36 16 0.053521761062231027 5 4706 4 4587 3 4444
2489 -0.20517441589921809 5.1214519012595288 56.00793743408245 116 119 124 0.054401626858587654 2 6350 4 4402 3 1571 1 6555
3086 -36.063459979705065 9.1328592742952726 58.362647551313209 133 122 88 0.13834849119811501 5 6546 4 6509 3 7209
2490 -9.259052375275969 4.9023228273408845 58.216899159654623 144 144 139 0.082129350274319279 2 8886 4 4403 3 4351 1 10609
3595 0.46719413024037237 10.222448018703354 55.117057159457666 95 87 85 0.36466620220862112 2 12235 4 8230 3 7886 1 11803
2492 -34.357309234018686 4.0567418449542112 61.372835668137995 123 105 77 0.019949805762162796 5 4524 4 4411 3 4303
2573 -37.49899782960653 4.061547256838721 45.276825855662977 149 138 121 0.017046992146867456 5 4716 4 4597 3 4451
2494 -9.5713989045072019 4.9545443138000183 58.174150967776278 131 133 131 0.042556576522614242 2 8894 4 4415 3 4362 1 9026
2495 -4.4161029582437852 5.1665216530330049 57.203370415843771 130 131 127 0.073947996864955623 2 8922 4 4417 3 4372 1 9068
3084 -37.136270154269781 6.9737793415899132 45.017779752950425 130 114 91 0.16082681083351938 5 6544 4 6505 3 7206
2496 -37.102258759692674 2.6771757941647434 45.614586131708826 67 51 36 0.056843927360769819 5 4559 4 4424 3 4300
2641 -11.690696985081523 8.4885839728661985 58.306607869837507 49 44 40 0.043992163700936025 5 4836 4 4785 3 4691
3878 13.592625600233648 -5.0628645158710581 51.951016096783242 42 38 32 0.092547888196120573 2 278 3 159 1 321
2498 -2.899457786956634 5.2896037519193984 56.705831857812925 114 115 109 0.062781014429564463 2 8933 4 4429 3 4391 1 9086
3667 -38.010635232062256 6.2650371741746449 57.39069854874856 110 99 69 0.10956476160620358 5 8645 4 8578 3 8198
2499 -9.0105402012433871 5.2235678967182464 58.174691981356311 71 63 53 0.17081935206608509 2 8917 4 4434 3 4381 1 9054 3 1586
2500 -9.0105402012433871 5.2235678967182464 58.174691981356311 71 63 53 0.17081935206608509 2 8918 4 4435 3 4382 1 9055 3 1585
2645 -9.0222083290876363 8.5348432509748058 57.551386107675931 73 67 58 0.075479973349693183 2 9234 4 4795 3 4700 1 9340
2501 0.78971682672286359 5.4061763087769821 55.702901525226522 105 96 89 0.076769882303592746 2 8960 4 4436 3 4409 1 9118
2503 -1.5485901041023156 5.428440928307376 56.305242369037387 134 135 132 0.058651866865481836 2 8959 4 4440 3 4411 1 9112
3156 -0.67766659297401211 11.306625845887714 55.146605328096804 46 45 42 0.11395444017996607 2 9562 4 6688 3 4998 1 9660
3877 1.4660634335938845 -6.4101578052224459 55.422600375089239 139 139 131 0.1722588333618863 2 8259 4 3410 3 151 1 8363
2504 -13.78314025645839 5.1854625114820649 59.201978630140019 177 174 155 0.032923942990802563 5 4520 4 4445 3 4378 1 10615
2649 -8.7258140667733191 8.7016435622933663 57.44751310984141 139 131 128 0.11380257281675887 2 6852 4 4805 1 9358
3886 10.365185744519568 -4.605565115903806 52.790366459380003 173 171 166 0.014467136921938828 2 5140 3 217 1 5297
2505 -36.832383168344457 4.0470846032665344 57.525252255073781 136 129 103 0.18682459557359099 5 4565 4 4447 3 6029
3166 0.49142412088690429 -8.3594362754081786 55.007572136070195 31 35 28 0.19823844749652722 2 10084 4 7008 3 5494
4908 13.280385750881129 -5.2008605477771184 60.538183668448141 40 30 20 2.6076292414124604 3 3505 1 5321
2510 -8.6627588080718656 5.3788965739244086 57.937566797674727 107 102 95 0.16230231407251922 2 8931 4 4456 3 4399 1 10649
2511 -35.805934075154248 3.143889424116288 46.918938573920947 178 175 167 0.046005351672640256 5 4584 4 4459 3 4333
3164 0.57082666780322855 -8.669845000523777 54.501442325824222 55 35 39 0.53075299330448711 2 10080 4 7004 3 5486 1 10209
3885 10.594685166245799 -4.6787377802701311 52.729035700362836 177 176 171 0.055446717091340192 2 5133 3 209 1 5292
2512 -34.812755531389811 3.5048857546556533 50.219440860695457 95 85 68 0.083144554146241681 5 1848 4 4460 3 4337
2721 0.39498654006117406 9.8445968472713066 55.142057108703447 107 106 104 0.057793092173148451 2 7118 4 4978 3 2320 1 7290
3894 13.433854396294079 -3.8289599802266827 53.051068244337337 18 15 9 0.077696569634829238 2 5200 3 267 1 5388
4912 9.2790381278251886 -5.0652212738519484 34.26063432052468 97 87 77 1.3553130905896675 3 64 1 221
2514 -34.206636090769976 4.5961974319408023 60.798703796262657 120 105 86 0.077295701352461096 5 4571 4 4465 3 4354
3747 -34.149521232025606 -3.0640906926397427 62.512958983290964 5 1 0 0.026938598625441745 5 9017 4 8924 3 8480
2515 -35.405549704453414 3.3896771851809162 48.581587197202225 172 168 157 0.077006631471094225 5 4591 4 4468 3 4343
2516 -7.3488141277703241 5.4964915312565337 57.890131720041929 88 87 83 0.070857330305286209 2 8947 4 4469 1 9089
2725 -7.9186615165814906 10.269366355147501 57.049854358540991 139 133 127 0.17835835847584072 2 9401 4 4990 3 4859 1 9518
4907 -17.106603708090198 10.228047547480559 58.34594986411885 47 40 28 0.18126597633814676 5 4976 4 4956 3 6318 2 11643 4 6553 1 12384
2517 -2.9936462656681182 5.5402694315494214 56.463472355966282 128 136 143 0.049990291703243393 2 6406 4 4470 3 1636 1 9117
2519 -36.95703268028285 4.2469369942815893 57.346447662982158 99 81 45 0.46880570219581741 5 4590 4 4473 3 6038
3236 0.16740873293516817 1.327279267727403 56.604879491531555 74 77 80 0.10506509729072151 2 11329 4 7223 3 6943 1 11496
3893 13.433854396294079 -3.8289599802266827 53.051068244337337 18 15 9 0.077696569634829238 2 5199 3 266 1 5387
2520 -34.992589864131034 3.5993421351951764 49.724831554173626 159 156 147 0.098311968484906753 5 4595 4 4478 3 6037
2729 -0.6146594347812967 10.035828529726833 55.324363167619801 132 129 127 0.035511021945000922 2 7134 4 4998 3 2344 1 7323
3902 1.8614454648535852 -3.9574032542682382 54.907960170930437 168 165 158 0.08327150451537807 2 389 3 327 1 5325
4927 -10.520049749194929 1.055100980421751 59.118020976204178 51 44 38 0.11164231927482866 2 5633 5 957 1 5739
2521 -0.96820799238429378 5.683623530910495 56.133615457850844 31 28 21 0.092719029119573457 2 6434 4 4480 3 1664
3246 -0.20154180497621949 2.0297710524415815 56.520149555767169 142 146 148 0.037838942546516562 2 11356 4 7260 3 6962 1 11520
2526 -37.299738597080811 3.1390294947708415 45.296668619404272 123 114 99 0.076316525388884449 5 4612 4 4487 3 6036
2527 -16.723171852601411 5.3606694135915047 58.885977938864677 148 137 112 0.099755742837391442 2 8925 5 4557 4 4488 3 4408 1 10623
3244 -3.2321800323006986 1.7951500904753623 57.288137982992566 134 136 131 0.11888685328933619 2 10320 4 7256 3 5847 1 11507
3901 8.3306090720193673 -3.5405293223361283 53.229913899182115 176 175 170 0.051547360552346044 2 5218 3 317 1 5386
2528 -13.363109615607298 5.5097081138714206 59.025921115343152 90 85 83 0.096681603788825524 2 8936 4 4489 3 4412 1 10636
2673 -7.5388353286191618 9.287228083820132 57.05434301930849 93 81 70 0.16942919707776952 2 6948 4 4864 1 7126
2529 -13.365369062564453 5.5115657468985235 59.04612464392298 90 85 83 0.041309515290455269 2 8937 4 4490 1 10637
3190 -36.915199213855978 -6.5828216631933563 54.51494607818082 161 154 136 0.071590457421907255 5 7102 4 7109 3 6813
2530 -5.402574354337137 5.6770232902312365 57.380328181637879 121 123 120 0.056743155187601438 2 6420 4 4491 3 1654 1 9116
3699 -36.0925071945124 -2.5125828258775562 53.385358696294276 179 175 163 0.21214748252057722 5 8827 4 8766 3 8482
2531 -0.74580926931553793 5.741244649941426 56.093064309042674 52 47 42 0.016964980770362386 2 6441 4 4492 3 1674
2532 -0.74691475586648326 5.7412283434688423 56.1094247318836 52 47 42 0.076183490281660771 2 6440 4 4493 3 1675 1 2460
2677 -1.3376836184374212 9.2413006133015809 55.655874639030685 114 114 116 0.11769266014233792 2 6980 4 4879 3 2214 1 7161
2533 -36.09924441502497 3.2855181108765872 45.860238248178348 166 159 143 0.048288779313354423 5 1900 4 4494 3 4365
2535 -12.330563759671717 5.6020645619442178 58.761990204030781 37 38 38 0.11027823926093984 2 8950 4 4498 3 4418 1 9081
3188 -36.405590234892379 -7.3444294324024577 55.739168307266176 53 46 34 0.012646732397588177 5 7084 4 7098 3 6806
2536 -4.0537129987058504 5.7612587761448726 56.808983194157157 87 78 67 0.11024791350248012 2 8982 4 4502 3 4439 1 9134
2681 -36.368757167708971 9.5730354550248968 58.2657037975195 95 78 50 0.07843876121686387 5 4941 4 4894 3 4776
2537 -38.061788060631407 4.4598312129637305 57.296871746736187 115 107 82 0.17782039022069421 5 4615 4 4504 3 4375
3198 -35.025624985837162 -5.4063092377135185 59.812939489032338 57 46 26 0.18945051088494869 5 7123 4 7132 3 6834
2538 -34.066298303080409 5.026643718184082 61.405544808463183 20 12 2 0.04528675357513879 5 4603 4 4505 3 6054 4 6306
3707 -35.053491694535012 -1.1943064293442098 58.823915879325227 61 49 26 0.10211049255410949 5 8840 4 8784 3 8342
2540 -6.2357166488864779 5.8264157675526302 57.544988435668927 77 76 74 0.051670890804915708 2 8981 4 4513 3 4441 1 9129
2685 -2.1877067875131262 9.5558159558758806 55.794678910661233 69 68 66 0.21272097988040573 2 7036 4 4910 1 7222
2542 -37.136699546508126 3.4025692034076327 45.513113375103906 121 106 83 0.068966606003512884 5 4634 4 4516 3 6052
2543 -36.340285722548401 3.4743236200349634 45.830035990245484 67 56 38 0.051557496559813759 5 4635 4 4517 3 4384
3196 -35.890378565162109 -5.6622082956183881 49.127337437857015 153 144 120 0.12767462271462107 5 5902 4 7122 3 6821
2544 -1.6748706850177273 5.9261330355266448 56.255732703747739 131 128 123 0.078486151416022332 2 6458 4 4518 3 1707 1 9150
2625 -32.924589868082329 8.1919496113034658 61.268407670020572 100 74 41 0.028756873488675939 5 4825 4 4751 3 4639
2545 -33.682989117537225 5.2909577204167411 61.835880381057699 67 39 15 0.071479612166038153 5 1902 4 4523 3 4405
3142 -0.58896757665700039 10.876015637983082 55.118736465117067 48 45 40 0.098803167506338871 2 9521 4 6654 3 4957 1 10978
2546 -37.363408045104848 3.4388985752058088 45.26921095517514 121 109 85 0.083759068715429805 5 4647 4 4525 3 6062
3651 2.4091763186386634 4.7558368649861453 53.438999312269679 123 123 121 0.11592347603175557 2 12529 4 8538 3 8174 1 12667
2547 -1.9450252015328107 6.0070902185712063 56.342342241148643 111 106 99 0.046978156484069097 2 9007 4 4531 3 4464 1 9155
2548 -10.735710260511995 5.9030098057001634 58.44331286319774 127 127 125 0.39003162484329962 2 8979 4 4534 3 1687
2629 -0.9371756812635994 8.060822857598172 55.74410761932225 84 56 42 0.060215222908698414 2 9211 4 4758 3 4675 1 9320
2549 -0.77909565938011949 6.048568174746408 56.077149987976895 124 114 105 0.14492802503358429 2 6485 4 4535 3 1735 1 6681
2551 -0.56005451507518389 6.0838271310632823 56.05396711879245 63 55 50 0.21459682953181591 2 9011 4 4540 3 1739
3140 -10.335234692765578 11.402727886816612 57.422816532649051 148 153 156 0.039313064552899304 2 10857 4 6652 3 6428 1 11830
2552 0.30686730800365958 6.0897420846031469 55.730229997385635 112 98 88 0.12989143344922197 2 9018 4 4541 3 4476 1 9165
2633 -37.839279505184635 7.6842799554188925 57.229880465786664 113 95 60 0.066774411270297609 5 4837 4 4766 3 4649
2553 -38.110811747445787 4.8088567218982234 56.973905210883437 115 103 77 0.022456456610573734 5 4650 4 4543 3 6072
3150 0.24974371004104204 11.075682464885997 54.951936508812679 109 104 98 0.10782178833192803 2 9538 4 6674 3 4979 1 9638
2554 -17.35875279337208 5.8841341682473756 59.540752462787694 119 111 93 0.62287324920541831 5 1892 4 4544 3 6093 2 11479 1 11628
3659 -37.371765669532834 4.7166096848445056 57.504490690864571 70 51 21 0.13268547553011834 5 8627 4 8562 3 8383
2556 -8.1299105558631677 6.0922372984380511 57.750940032167883 130 127 117 0.086478931003608692 2 8998 4 4553 3 4465 1 9144
2637 -0.14370618984212694 8.2144429741669427 55.509711154621975 107 107 111 0.26230814549818038 2 9232 4 4778 3 4698 1 9343
2558 -35.289588502403362 4.1648849312674576 48.739427925778266 159 153 139 0.14546312186985244 5 4664 4 4557 3 4428
2559 -35.289588502403362 4.1648849312674576 48.739427925778266 159 153 139 0.14546312186985244 5 4665 4 4558 3 4429
3148 0.55911445079819078 11.041905888618302 54.917900488185431 112 106 101 0.029901979885102844 2 9534 4 6672 3 4974 1 9635
2560 -36.261328103464166 5.2379612625258449 58.640358785981959 104 82 42 0.045817160174163152 5 1962 4 4562 3 1656
2563 -16.732317698581422 5.9839304494533829 58.729830310241553 147 141 125 0.28217151588154615 2 8986 5 4626 4 4568 3 4461 1 10661
3506 -37.138524553762799 0.69728279197525467 46.405719791348055 20 13 4 0.078337778878168327 5 8095 4 8048 3 7677
2564 -0.0055442663881829597 6.2923895943123425 55.800923220736223 126 121 116 0.052539519426373686 2 6525 4 4573 3 4493 1 9182
4023 6.6291748965561155 2.5801678800802272 54.471499417917478 172 169 161 0.013246857578671825 2 1507 3 1091 1 1730
2566 -13.835880491316278 6.1767625247882068 58.969263071279265 48 48 46 0.05699215793923431 2 8993 4 4578 3 4468 1 10673
4017 6.6837030596336655 2.3472231500274465 54.457361220187046 164 161 154 0.0079003562925143503 2 5927 3 1053 1 6134
2570 -34.958208333264828 5.7030771779002469 59.683930073212629 83 67 39 0.11768219443422823 5 4697 4 4588 3 1710
2571 -34.12021947846339 5.9312141595815877 61.41314281892025 102 85 67 0.047334007614623586 5 4693 4 4591 3 4458
3514 -6.4301314027829353 3.622193903330245 57.781204152924687 107 109 106 0.049577850641201029 2 11397 4 8062 3 7015 1 12254
2572 -3.7712773919335296 6.4827078308804769 56.658383777348632 66 58 50 0.064875267661744632 2 9041 4 4594 3 4509 1 9184
4031 4.967432844752695 2.6428445044395446 53.62104759880021 115 103 91 0.079142338266015314 2 5994 3 1123 1 6186
2574 -13.540021070890329 6.5872340958679851 58.870163105290381 104 100 96 0.20978826463474951 2 9027 4 4606 3 4508 1 9161
4025 6.4169429229548367 2.6329373384365757 54.425834318981835 150 142 134 0.14968513652544499 2 5985 3 1103 1 1741
2575 -38.186551418187676 5.5555244881235852 56.375197546677903 117 106 79 0.088290238431304999 5 4728 4 4607 3 4479
2576 -2.3031707588328247 6.7283888599821315 56.241462261058452 77 72 67 0.089189979777957784 2 6584 4 4610 3 1834
2579 -11.613596369835864 6.7869548028709419 58.42039552510294 52 43 36 0.18801604846995473 5 4700 4 4621 3 4525 1 10705
3458 -34.658186274775055 -7.463201477278238 59.83251643554285 15 11 2 0.081119145792673084 5 7905 4 7909 3 7536
2580 -0.12899587686861785 6.8161853895063853 55.745402733443406 61 52 47 0.059178115400113036 2 9086 4 4622 3 4545 1 9225
3975 -15.668859396082022 0.16959402033287752 60.423297803315322 168 162 149 0.08016205308084827 2 5495 3 758 1 5585
2582 0.049327919288558834 6.868184678263491 55.697807177336863 103 98 92 0.038185487416275275 2 6614 4 4625 3 1859 1 9232
3969 8.7630081786252649 0.68474013407281553 55.293079506231834 116 113 104 0.063897082445448991 2 929 3 713 1 1187
2586 0.60894884276121719 7.0493714535349872 55.571040706811331 33 31 28 0.021295814111728407 2 6637 4 4643 3 1883 1 6827
2587 -23.324399490497317 6.7811922791140358 58.847059416283926 100 93 83 0.10035441086318475 2 10536 4 4644 3 4536
3466 -34.754381762822945 -5.9836149776520138 61.176018089762145 173 171 162 0.03186391611643568 5 7934 4 7933 3 7559
2588 -16.769816755286648 7.0085833568106919 58.573955965142012 162 151 132 0.11545734815447363 5 4740 4 4651 3 4551 1 9198
3983 -6.9796586351408507 0.94499534876534019 58.334967940374725 103 88 77 0.04496204135446652 2 5613 3 817 1 5750
2590 0.86512334032586402 7.2033180990109837 55.44489830539468 38 36 32 0.11067988110775651 2 6660 4 4659 3 1902
3977 7.0316659049102155 1.1618428161431427 54.606380257595823 63 52 42 0.019726718765286897 2 1104 3 782 1 1314
2591 -34.956873422017168 6.8324710547175131 59.863970560703706 149 143 123 0.21034715635129553 5 4761 4 4661 3 1851
2592 -10.719610233357926 7.2601799277617189 58.107106446631668 74 69 61 0.12796921934365366 2 9105 4 4664 3 4577 1 9231
2598 0.4032185649616975 7.3331846419554072 55.49376944324802 73 73 75 0.078282498108655424 2 6675 4 4679 3 1916 1 6862
3264 -35.571273459932797 0.33460273371536298 57.684456696033507 149 143 124 0.19236433035871794 5 7301 4 7296 3 6952
3921 3.8207079609773564 -1.9727966935788956 54.147350140821324 181 178 173 0.17342035716306259 2 547 3 470 1 614
2602 -38.314840025168692 6.5629791479720012 56.447032009384323 70 55 35 0.019295588254894101 5 4782 4 4689 3 4562
4309 5.4658440739310468 1.3412190291072463 53.685691039049757 165 161 152 0.090050603935723991 2 5733 3 3932 1 5959
2603 -38.314840025168692 6.5629791479720012 56.447032009384323 70 55 35 0.019295588254894101 5 4783 4 4690 3 4563
3418 -1.5110799751165696 10.21324811432345 55.491529185042417 144 133 125 0.050614329823736232 2 11662 4 7631 3 7266 1 11799
4302 4.2345024203676624 0.88366706430677822 53.346839766185603 82 76 69 0.050137891483361591 2 8538 3 3876 1 8703
2604 -13.928705902167767 7.5360141650841364 58.858025593017331 115 104 95 0.12322337389609761 2 9127 4 4694 3 4596
3935 5.6449617684821023 -1.001580607524472 53.588432257731377 173 170 163 0.20298668270413442 2 679 3 548 1 5553
2606 -11.77690123133541 7.5564372489408376 58.437871269626307 46 45 43 0.11937002265089421 2 9133 4 4699 3 4600 1 10747
3272 -9.1227978658072058 2.4290416229885552 58.630112665760656 192 186 174 0.065943106520476746 2 11366 4 7309 3 6980 1 12219
3929 6.1656206898539283 -1.3364508032475411 53.500127247185048 21 18 11 0.049331091911803571 2 627 3 520 1 726
2607 0.77584065152385318 7.4638437479757362 55.41131083492823 100 102 106 0.075917853889064316 2 6699 4 4701 3 1935 1 6888
4306 -6.1636920679034235 0.82765105677687756 58.173210855281567 108 95 82 0.13594403984077583 2 8518 3 3908 1 10396
2608 -7.3257427220803324 7.6023248006816191 57.218033079860959 121 114 104 0.047921063721857865 2 9149 4 4708 3 4614 1 9271
2614 -36.825314275436774 7.3489150859958379 57.702219572145218 105 93 73 0.047893814432319944 5 2135 4 4730 3 1933
3280 1.76602839221192 3.2348090411470669 53.80934646204264 161 156 150 0.092126736569331721 2 10398 4 7323 3 5944 1 10553
4001 -8.261925400848023 1.3139413789388206 58.58781881146605 195 189 180 0.10832264172603179 4 874 3 919 1 5821
2618 -1.1930590000609917 7.9498495703579888 55.799801194342436 67 56 50 0.10021838511648837 2 9204 4 4741 3 4663 1 9312
2619 -18.216672772728174 8.2174049416212167 59.90250482208846 35 22 11 0.19757516866327743 2 9170 4 4742 3 1985 2 6722
3498 -9.2952800693589257 1.6747418981842825 58.700241022227452 205 205 199 0.13500908266670203 2 12038 4 8019 3 7669 1 12208
2620 -13.551619667707321 8.1447556711399312 58.664940697326209 123 126 127 0.11751388940818631 5 6490 4 4743 3 4654 1 11706
4015 8.4428578841961652 2.4119646932231062 55.640732424093237 31 22 16 0.14115259443028397 2 5930 3 1044 1 6140
2622 0.10011732078515165 7.9752069566006458 55.478904268346824 115 109 104 0.13485444178491646 2 6772 4 4746 3 2020 1 6958
3288 -32.77475880977326 2.1872048221320566 62.445504037757665 161 156 138 0.0081597634430725183 2 12046 4 7339 3 6993
4009 -1.5029261205056075 1.8560306560081046 56.713552881963942 80 87 95 0.23705219221634191 4 894 3 993 1 1398
4313 12.955043469885405 1.8160436555528963 55.894839223282048 67 58 55 0.058080265436238156 2 8626 3 3957 1 8826
2623 0.10011732078515165 7.9752069566006458 55.478904268346824 115 109 104 0.13485444178491646 2 6773 4 4747 3 2021 1 6959
2624 -37.505204793146987 5.8601479531804195 45.180160504292608 104 88 72 0.14247795372451025 5 4834 4 4750 3 4637
2627 -2.7397351520850806 8.0631283718135265 56.1447648554389 119 115 106 0.055610767483624486 2 6771 4 4754 3 2024 1 9315
3570 -19.798039427727314 8.9613754539656725 59.221660068157298 61 51 39 0.054154716025461534 5 8217 4 8182 3 7841
2628 -8.3320436501339845 8.1552847378908577 57.451303437533724 137 136 131 0.05798802813869057 2 9202 4 4757 3 4665 1 9308
4087 -4.5404597583448343 4.4643890343124113 57.250069706673564 87 83 76 0.23875037347528361 2 6226 3 1468 1 9007
2630 -3.2230061397832719 8.1127189569735467 56.218580808189046 90 79 76 0.05389480504490568 2 9210 4 4759 3 4677 1 9318
4081 -7.4935486166269278 4.3179927603907853 57.864299509101379 103 105 103 0.070314243838215898 2 6211 3 1443 1 8986
2634 -2.6318419431351474 8.1612721645031225 56.091977556410015 47 41 36 0.048909898555582511 2 9216 4 4770 3 4683 1 9324
2635 -10.736765611782635 8.3216261438832433 57.875656832367866 60 57 51 0.10804015294465227 2 9209 4 4775 3 4679 1 10778
3578 -34.609111787821391 9.6547231366276414 59.713448822656126 107 95 71 0.065469059894697937 5 8231 4 8197 3 7859
2636 -36.771325110948609 7.8543148361353952 57.641694023477029 108 95 75 0.11789549738112569 5 4846 4 4777 3 4661
4095 5.1551190894169254 4.7567429865083435 53.323504026625685 85 76 67 0.15965068606638652 2 2128 3 1531 1 2300
2638 -26.041092600438727 7.366521972186133 52.63443260652862 131 120 98 0.12804143323342487 5 4842 4 4779 3 4671
4089 4.8154326769708877 4.5508497607498137 53.349611258703867 142 139 132 0.17660574556183958 2 2070 3 1485 1 2248
2639 -26.041092600438727 7.366521972186133 52.63443260652862 131 120 98 0.12804143323342487 5 4843 4 4780 3 4672
2643 -32.960052398501695 8.6407585893442587 61.233714274079361 73 48 18 0.10972733848284877 5 4853 4 4788 3 4681
3522 -7.4851932736112685 4.0147963520704515 57.901971815506037 31 30 25 0.24024622281428365 2 12097 4 8079 3 7731
2650 -3.755561557811042 8.5970216850232344 56.292501924778605 86 72 59 0.060846533212027154 2 9254 4 4806 3 4717 1 7036
3371 -38.386850296315991 7.3292047924087971 55.625826121546389 115 105 80 0.096255467920322538 5 7485 4 7514 3 7170
2654 0.37310922009231628 8.6376797748074488 55.377378028406383 98 96 97 0.13231438103084212 2 9270 4 4821 1 9377
4041 6.565730006467243 3.0429224905368502 54.409754379370398 177 173 165 0.018579926844828138 2 6058 3 1181 1 1850
2655 -25.476155297082361 8.3053025170520911 55.251247870883368 135 111 74 0.11949074504605207 5 4874 4 4823 3 4719
3884 10.817588646590865 -4.7454949707711886 52.687322067211099 184 182 175 0.02733928935753745 2 5126 3 204 1 5286
2656 -18.068751534324296 9.2280065551983661 59.965801450348458 129 117 95 0.048270930115448793 5 4880 4 4827 3 4725 2 9258
2659 1.6805213262358005 8.3973990652225048 53.009643744684595 169 167 162 0.13782358495967592 2 6909 4 4830 3 4737 1 7086
3474 -36.394928271166087 -4.1456889242341868 55.8590144623398 79 67 49 0.026699937095226872 5 7969 4 7959 3 7582
2660 -35.746281897366948 8.8376693670895214 58.749314213417186 127 111 70 0.058970151301769268 5 4889 4 4831 3 4722
3991 6.9273359891617172 1.5195065534289145 54.518740382556274 166 162 151 0.077193729008914816 2 1220 3 848 1 1405
2662 -2.2350949061544112 8.8827161411684123 55.912409943223111 113 116 121 0.064193492138368169 2 9276 4 4838 3 4745 1 9390
3985 6.9325011927073081 1.4011675643484722 54.549371671165368 45 37 26 0.10606636127366831 2 5737 3 822 1 1376
2666 -17.910329332764032 9.3881422686006548 59.650083039733062 69 57 41 0.068850856934145638 5 6531 4 4847 3 4738 2 9272
2667 -1.0450621893902889 8.9512018022530491 55.53557886197931 44 39 36 0.081225156876546897 2 6932 4 4850 3 4754
3482 -35.35585757585806 -3.0203064511384698 58.854752260174571 161 158 142 0.047132281329208624 5 7994 4 7977 3 7595
2668 -2.1935526636024671 9.0974082662578244 56.030952212829696 50 47 40 0.40191446190494179 2 3059 4 4853 1 3164
3999 6.8524589253019323 1.7164782389304383 54.563352029998491 175 167 156 0.028312627081667822 2 1267 3 914 1 1461
2670 -35.125830424087653 9.2848889658492446 58.939739331571282 164 159 139 0.054229892489392771 5 4913 4 4857 3 4749
3993 0.79275845168754477 1.3489709061084734 56.413153816717205 86 85 84 0.098516001494017111 4 3899 3 855 1 5921
2671 -0.90494948129424391 9.073045699414493 55.62257325307877 61 60 57 0.10859665026351834 2 9303 4 4858 3 4766 1 9412
2672 -23.883479320265582 9.2798946256678843 58.04751951047627 67 64 58 0.027331699098939049 5 4912 4 4861 3 4760
2675 -38.204475667764335 9.0625392005248351 56.566465891292545 90 73 43 0.031167010610458859 5 4930 4 4871 3 6277
3554 0.28143775973407231 7.0127266441166833 55.813731183363423 51 47 44 0.49082978798502913 2 11536 4 8143 3 7147
2676 -11.815355816205205 9.5255684301067962 58.133671375369595 123 123 124 0.13267274030383772 5 4915 4 4873 3 2198
4071 -13.020911324702258 3.557183946566965 59.444561630197697 177 172 155 0.02281123893380459 2 6080 3 1334 1 6204
2678 -9.8389770542977093 9.5275839608702597 57.541160167666256 131 139 140 0.0681125618867751 2 9313 4 4885 3 4775 1 9422
4065 13.20583961705861 3.8538167707017128 55.289003434428146 108 97 91 0.075071540757757224 2 6174 3 1305 1 6416
2682 -21.825163195344576 9.9108834346134156 59.139818420179068 116 112 101 0.1372163534398991 5 4945 4 4900 3 4790
2683 -12.935648680812008 9.871803071587042 58.23430818052605 58 49 42 0.082366319973067481 5 6574 4 4907 3 4797 1 10869
3562 -38.121227175945052 7.5205375275252226 57.181403794251565 120 106 77 0.073207529383533351 5 8202 4 8164 3 7816
2684 0.4451890141229366 9.4504524551528046 55.201042227420231 31 25 19 0.07013642582037409 2 7038 4 4908 3 2256 1 7224
4079 -13.658585995852267 4.2601130804619318 59.331651812519475 72 57 42 0.042843480872871091 4 1453 3 1437 1 8956
2686 -2.1877067875131262 9.5558159558758806 55.794678910661233 69 68 66 0.21272097988040573 2 7037 4 4911 1 7223
4073 -6.8604982115649635 3.7551358805009301 57.829798770128349 127 129 128 0.085605350371371403 4 1320 3 1358 1 1882
2687 -9.5694788810638016 9.8187368686637164 57.460602030300947 136 133 128 0.1723566479122414 2 9342 4 4914 3 2253 1 9459
2689 -36.341941045717384 9.8369824378680857 58.137334093594291 100 84 62 0.16158472942620819 5 2341 4 4918 3 4800
3862 4.7568304777562087 -8.2184308023886583 53.805176652564342 98 86 74 0.15555495310770426 2 5012 3 79 1 5122
2690 -35.75517800064474 9.8910522257890729 58.366748179094692 104 89 66 0.27137905281821834 5 2345 4 4919 3 2250
3347 -11.145281334822489 6.6904791839652962 58.159381637068698 121 116 110 0.4366807257229624 5 8170 4 7468 3 7135 1 11662
2691 -35.37543196319276 9.9198887653322494 58.619498850513089 109 88 57 0.20469718887894608 5 2342 4 4920 3 4801
2693 0.064409470731957325 9.5165421068746472 55.279926092215952 41 31 25 0.066605720407905231 2 7045 4 4922 3 4818 1 7233
2695 -1.1977190968470732 9.6864535062687303 55.552736632841651 145 150 154 0.062499885347888431 2 7067 4 4935 3 2276 1 7249
3860 5.1268475305122436 -8.2395361026566256 53.716207075260819 97 82 68 0.020377972088605714 2 5011 3 76 1 5123
2697 0.93283900117938612 9.6146885278279459 55.05405446835357 93 93 95 0.081433167201021062 2 7073 4 4939 3 2281 1 7252
3870 0.91161674676921445 -8.0759454924029903 54.808417667383658 82 73 68 0.029192706009130879 4 31 3 103 1 5101
2698 -8.6835496144949271 9.9704450771903019 57.251803091256733 135 135 134 0.072709743433484478 2 9359 4 4941 3 4827 1 9475
3355 -38.179358902840136 6.7396011918574228 57.701620036896209 66 50 25 0.09851058524125611 5 7472 4 7488 3 7146
2702 -9.3523268943164144 10.012075818322492 57.375957915649295 130 132 134 0.099019585366170768 2 7072 4 4945 3 2279
2703 0.70591480172481724 9.7091288715110924 55.09075224085629 32 29 25 0.065876354278827043 2 7090 4 4953 3 2288 1 7263
3868 5.1749417109133882 -7.6925390379730922 54.012143035062124 114 110 105 0.12099059492208025 2 193 3 101 1 178
3942 8.0238858479145438 -0.5409881407433097 54.546408771075519 153 144 135 0.046388245426831232 2 5434 3 590 1 5616
2706 -12.128967989805654 10.179855190845101 57.917039170749106 48 47 43 0.26381839728874096 5 4977 4 4958 3 4836 1 10888
3427 -35.389585878548822 9.3389114802245903 47.218003285512935 143 129 94 0.16272940145340761 5 7598 4 7646 3 7283
2707 -0.21089375330014851 9.7514413350078808 55.293434153290157 57 52 49 0.092922827652849621 2 7088 4 4959 3 2289 1 7267
2709 1.7220668929192375 9.3303532913418401 52.779526827846958 164 163 158 0.065376036049673708 2 9376 4 4961 3 4840 1 9492
2711 -11.877273221974788 10.244518513239012 57.98901053231306 133 129 125 0.061850573167916485 2 9371 4 4964 3 4838
3940 6.0661104557964594 -0.84477900717300247 53.458938989632315 109 103 94 0.66921585892328095 2 692 3 572 1 816
2713 -8.8159928916961601 10.147224914611053 57.344748482356856 74 66 63 0.11534795714109647 2 9372 4 4968 3 2300 1 9497
3950 5.6033748604192493 -0.40526747156117177 53.498689593837035 174 171 162 0.061119341528202586 2 5448 3 612 1 5621
2714 1.925821650069768 9.3848517879565421 52.721385185412565 160 157 150 0.10211688536900855 2 7113 4 4969 3 2314 1 7287
3435 -36.023853876004949 9.5603918687920082 45.001292989577685 90 77 66 0.5127171217601888 5 7634 4 7670 3 7909
2718 -9.4056100833942562 10.245065935895608 57.427324407168861 50 46 40 0.034057763208723044 2 9385 4 4975 3 2317 1 9512
2719 -1.2943749863430039 9.9036477035689447 55.494843837992889 140 144 144 0.11287473356424002 2 9386 4 4976 3 4850 4 6561 1 9503
3948 10.058442025614108 -0.22873037972219212 55.377881030919852 32 25 17 0.12015940793177604 2 5464 3 610 1 923
2723 -35.946438975237186 10.25551526774796 57.660296758579662 108 89 57 0.015924949299643585 5 4991 4 4982 3 4847
3538 -35.145037082948356 4.0560055629280782 59.198835570245492 96 82 48 0.1802130473982114 5 8135 4 8108 3 7745
2730 -0.47185772047398095 10.080680961723873 55.34755566196128 59 51 45 0.091572721885607986 2 7140 4 5001 3 2352 1 7332
3387 -0.30340460584069617 8.608363530938977 55.545993021528169 78 78 78 0.03116690361099158 2 11597 4 7542 3 7198 1 11743
2734 0.34695393393340052 10.127848035837058 55.171386468948938 100 100 101 0.037379793384028692 2 7158 4 5013 1 7349
4057 -7.4056518047248607 3.2407230700778755 58.057090873343199 143 137 131 0.048625366969861084 2 6051 3 1255 1 6185
2735 -38.207021614363782 10.150717433221953 54.677936964928072 174 168 151 0.18202582970312256 5 5013 4 5014 3 4887
3900 8.3306090720193673 -3.5405293223361283 53.229913899182115 176 175 170 0.051547360552346044 2 5217 3 316 1 5385
2737 -2.6083808241918831 10.28326546566559 55.740545723002782 150 149 150 0.057903171400822517 2 9432 4 5019 3 4884 1 9546
3846 10.917915148212916 -8.4962732140880686 52.246200376945957 117 101 86 0.058375953630884742 2 4979 3 27 1 5107
2738 -12.367887206642751 10.791700872556895 57.995252650718967 69 58 56 0.20670312872941424 5 5022 4 5022 1 9558
3331 -15.5973627668979 5.702671502245404 58.596680225788496 147 149 144 0.085903885788474257 5 8149 4 7432 3 7105
2739 -12.367887206642751 10.791700872556895 57.995252650718967 69 58 56 0.20670312872941424 5 5021 4 5023 1 9559
2741 -24.66413823446301 10.756979800225128 56.716195193412211 92 76 54 0.10922554343661056 2 9464 4 5032 3 2407
2743 -2.034776420280715 10.47204719217719 55.625755973711001 61 52 43 0.074648803005716594 2 7197 4 5034 3 2399 1 7385
3844 13.032517375353462 -8.5513859967224306 51.533802957263788 134 116 102 0.041684192203296007 2 4961 3 15 1 5129
2745 -13.380218736851196 11.098672238593805 58.195969719758459 117 117 114 0.051912357017857368 2 9469 4 5048 3 4918
